897.481812 -69.576698 180.281754 0.466514 0.824261 0.320870 
882.245667 -63.372437 182.330383 0.335510 0.865442 0.372080 
911.193420 21.509466 60.939857 0.746795 0.214667 0.629457 
895.926331 22.206400 74.626999 0.549451 0.351916 0.757799 
898.064819 52.889313 60.945866 0.494693 0.290272 0.819159 
913.070618 52.424431 49.921234 0.672149 0.184805 0.716982 
882.344360 84.123299 57.255348 0.314807 0.311641 0.896536 
861.845886 85.602524 62.661888 0.215427 0.352714 0.910596 
865.599915 113.949631 51.525036 0.192192 0.319985 0.927724 
884.961304 112.505669 47.128445 0.275421 0.285515 0.917946 
920.760437 -28.849529 57.109566 0.963939 0.095303 0.248474 
920.497742 -5.294879 51.753769 0.936687 0.065766 0.343936 
926.458679 -2.788506 30.531870 0.978961 -0.032490 0.201445 
925.466309 -25.842690 33.441307 0.988897 -0.006871 0.148444 
926.494019 83.960075 30.401064 0.761972 0.063531 0.644487 
928.748840 114.323555 25.085802 0.672111 0.071318 0.737008 
936.894897 116.571808 15.426179 0.851020 -0.024838 0.524545 
934.068970 85.205177 18.687880 0.905792 -0.035819 0.422206 
918.182861 -52.084484 86.617264 0.947935 0.255777 0.189732 
920.911377 -66.096016 88.286522 0.986841 0.128848 0.097688 
918.824463 -71.326912 117.189728 0.960832 0.252974 0.113160 
914.368713 -59.103065 115.940681 0.877624 0.428934 0.213990 
922.310303 -74.608238 62.509926 0.988072 -0.152173 0.023624 
923.216370 -72.569809 36.966812 0.979731 -0.199582 0.017150 
919.834106 -83.385971 37.430725 0.912529 -0.408932 -0.008148 
919.411316 -85.105896 63.215878 0.920772 -0.389804 -0.015220 
905.696106 -85.103073 211.261871 0.531846 0.809189 0.249708 
913.232056 -91.673759 211.901047 0.752829 0.632291 0.182912 
911.141968 -98.294594 243.179443 0.656651 0.727687 0.198196 
902.901489 -92.463066 241.456039 0.439694 0.863237 0.247973 
919.113892 -86.915230 148.770035 0.997715 0.052488 0.042544 
917.884827 -95.417427 149.486069 0.941976 -0.334192 -0.031582 
917.239197 -100.189316 181.001953 0.943763 -0.329363 -0.028829 
918.028809 -92.573929 180.487610 0.989101 0.134467 0.059982 
905.300964 -105.140251 91.836868 0.631329 -0.772961 -0.062885 
905.265015 -107.787155 120.735924 0.617433 -0.782890 -0.076551 
913.513733 -99.717735 119.843063 0.781220 -0.620855 -0.065072 
913.693665 -96.716492 91.024734 0.786502 -0.615350 -0.052528 
903.688293 -118.222725 212.446640 0.534772 -0.841319 -0.078749 
901.964539 -121.826637 242.008926 0.482837 -0.872836 -0.070887 
910.540833 -116.160309 243.572403 0.666554 -0.742322 -0.068290 
911.943909 -111.801231 212.743103 0.718250 -0.692107 -0.071454 
893.312561 -118.490868 152.043533 0.475610 -0.875984 -0.080299 
877.687561 -126.084732 153.420563 0.395663 -0.915734 -0.069876 
877.189148 -128.572495 183.765015 0.370548 -0.926411 -0.066757 
892.814148 -121.532135 182.570602 0.449798 -0.889654 -0.078723 
877.812195 -120.309425 66.166878 0.450667 -0.891793 -0.040062 
893.437195 -111.617561 65.233566 0.526302 -0.849066 -0.045759 
893.437195 -110.453186 38.722038 0.534954 -0.844411 -0.028176 
877.812195 -119.327835 39.312298 0.460281 -0.887432 -0.024617 
905.385498 -101.173080 12.676229 0.649687 -0.760141 -0.009619 
914.116150 -92.230507 12.534989 0.786349 -0.617736 -0.007602 
914.116150 -92.230507 -12.534989 0.786349 -0.617736 0.007602 
905.385498 -101.173080 -12.676229 0.649687 -0.760141 0.009619 
858.455933 -130.473801 95.460350 0.380270 -0.923892 -0.042647 
835.718384 -139.207352 97.135147 0.334342 -0.942033 -0.028107 
835.962524 -140.127411 126.735451 0.314624 -0.948568 -0.035075 
858.504761 -131.973328 124.838676 0.360978 -0.931121 -0.052041 
858.396729 -128.235962 13.286537 0.410588 -0.911799 -0.006404 
858.396729 -128.235962 -13.286537 0.410588 -0.911799 0.006404 
835.422363 -137.884476 -13.568550 0.366369 -0.930462 0.003838 
835.422363 -137.884476 13.568550 0.366369 -0.930462 -0.003838 
857.236206 -137.284836 214.783173 0.288968 -0.956525 -0.039456 
835.933533 -143.221466 216.792084 0.244089 -0.969523 -0.021132 
835.052856 -143.800522 244.308655 0.222305 -0.974971 -0.003459 
855.616943 -138.629272 242.222031 0.263966 -0.964307 -0.020833 
858.455933 -130.473801 -95.460350 0.380270 -0.923892 0.042647 
858.504761 -131.973328 -124.838676 0.360978 -0.931121 0.052041 
835.962524 -140.127411 -126.735451 0.314624 -0.948568 0.035075 
835.718384 -139.207352 -97.135147 0.334342 -0.942033 0.028107 
857.236206 -137.284836 -214.783173 0.288968 -0.956525 0.039456 
855.616943 -138.629272 -242.222031 0.263966 -0.964307 0.020833 
835.052856 -143.800522 -244.308655 0.222305 -0.974971 0.003459 
835.933533 -143.221466 -216.792084 0.244089 -0.969523 0.021132 
877.687561 -126.084732 -153.420563 0.395663 -0.915734 0.069876 
893.312561 -118.490868 -152.043533 0.475610 -0.875984 0.080299 
892.814148 -121.532135 -182.570602 0.449798 -0.889654 0.078723 
877.189148 -128.572495 -183.765015 0.370548 -0.926411 0.066757 
893.437195 -111.617561 -65.233566 0.526302 -0.849066 0.045759 
877.812195 -120.309425 -66.166878 0.450667 -0.891793 0.040062 
877.812195 -119.327835 -39.312298 0.460281 -0.887432 0.024617 
893.437195 -110.453186 -38.722038 0.534954 -0.844411 0.028176 
905.300964 -105.140251 -91.836868 0.631329 -0.772961 0.062885 
913.693665 -96.716492 -91.024734 0.786502 -0.615350 0.052528 
913.513733 -99.717735 -119.843063 0.781220 -0.620855 0.065072 
905.265015 -107.787155 -120.735924 0.617433 -0.782890 0.076551 
903.688293 -118.222725 -212.446640 0.534772 -0.841319 0.078749 
911.943909 -111.801231 -212.743103 0.718250 -0.692107 0.071454 
910.540833 -116.160309 -243.572403 0.666554 -0.742322 0.068290 
901.964539 -121.826637 -242.008926 0.482837 -0.872836 0.070887 
-753.242493 -66.447899 52.388458 -0.131490 0.917907 0.374375 
-790.742493 -71.760818 50.667828 -0.164794 0.915342 0.367411 
-790.742493 -65.884041 31.310261 -0.168207 0.962917 0.210945 
-753.242493 -60.265923 32.363659 -0.135401 0.967071 0.215500 
-823.662292 -69.240456 -10.146306 -0.208795 0.975671 -0.066862 
-823.662292 -69.240456 10.146306 -0.208795 0.975671 0.066862 
-852.216614 -75.984650 9.619363 -0.254961 0.964784 0.064712 
-852.216614 -75.984650 -9.619363 -0.254961 0.964784 -0.064712 
-876.271057 -90.037399 43.016151 -0.310047 0.888503 0.338279 
-896.339417 -96.621735 39.679085 -0.381384 0.865372 0.325081 
-896.766663 -92.531494 24.577404 -0.379085 0.906723 0.184792 
-876.470459 -85.403595 26.623278 -0.310151 0.931038 0.192287 
-823.626709 -85.805977 64.841797 -0.200313 0.821055 0.534549 
-823.626709 -96.857704 78.068871 -0.193583 0.667191 0.719293 
-852.038574 -101.588547 73.805283 -0.245640 0.661927 0.708176 
-852.038574 -91.322884 61.376682 -0.249736 0.814880 0.523070 
-711.396790 -84.157906 86.730370 -0.089652 0.666287 0.740286 
-711.396790 -71.273773 71.874779 -0.099750 0.823233 0.558872 
-665.888977 -67.213074 73.188400 -0.080881 0.820989 0.565186 
-665.888977 -80.536827 88.348373 -0.070468 0.662865 0.745415 
-711.396790 -51.947575 11.214502 -0.113006 0.991008 0.071637 
-711.396790 -51.947575 -11.214502 -0.113006 0.991008 -0.071637 
-665.888977 -47.227455 -11.413984 -0.094783 0.992824 -0.072913 
-665.888977 -47.227455 11.413984 -0.094783 0.992824 0.072913 
-753.242493 -103.153389 95.261063 -0.105238 0.479881 0.870999 
-753.242493 -120.153824 102.313690 -0.096320 0.282087 0.954541 
-790.742493 -122.815331 98.639236 -0.133252 0.279138 0.950961 
-790.742493 -106.654190 91.933975 -0.141339 0.479325 0.866182 
-711.396790 -136.499695 108.704330 -0.062382 0.088652 0.994107 
-665.888977 -134.664551 110.901314 -0.042604 0.090547 0.994981 
-665.888977 -154.650177 110.813301 -0.037481 -0.099127 0.994369 
-711.396790 -155.825882 108.558716 -0.057530 -0.103318 0.992983 
-876.271057 -117.958817 77.198486 -0.307738 0.459889 0.832946 
-876.470459 -130.984543 82.421295 -0.303864 0.256020 0.917671 
-896.766663 -133.636368 75.434792 -0.390185 0.246047 0.887252 
-896.339417 -121.782257 70.814484 -0.392320 0.445868 0.804541 
-823.662292 -141.774780 96.956963 -0.173800 0.072471 0.982111 
-823.662292 -158.360825 96.514069 -0.170510 -0.123683 0.977563 
-852.216614 -158.830978 90.671646 -0.226516 -0.131418 0.965101 
-852.216614 -143.390137 91.221924 -0.230166 0.063874 0.971053 
-823.626709 -96.857704 -78.068871 -0.193583 0.667191 -0.719293 
-823.626709 -85.805977 -64.841797 -0.200313 0.821055 -0.534549 
-852.038574 -91.322884 -61.376682 -0.249736 0.814880 -0.523070 
-852.038574 -101.588547 -73.805283 -0.245640 0.661927 -0.708176 
-876.271057 -90.037399 -43.016151 -0.310047 0.888503 -0.338279 
-876.470459 -85.403595 -26.623278 -0.310151 0.931038 -0.192287 
-896.766663 -92.531494 -24.577404 -0.379085 0.906723 -0.184792 
-896.339417 -96.621735 -39.679085 -0.381384 0.865372 -0.325081 
-790.742493 -71.760818 -50.667828 -0.164794 0.915342 -0.367411 
-753.242493 -66.447899 -52.388458 -0.131490 0.917907 -0.374375 
-753.242493 -60.265923 -32.363659 -0.135401 0.967071 -0.215500 
-790.742493 -65.884041 -31.310261 -0.168207 0.962917 -0.210945 
-753.242493 -103.153389 -95.261063 -0.105238 0.479881 -0.870999 
-790.742493 -106.654190 -91.933975 -0.141339 0.479325 -0.866182 
-790.742493 -122.815331 -98.639236 -0.133252 0.279138 -0.950961 
-753.242493 -120.153824 -102.313690 -0.096320 0.282087 -0.954541 
-823.662292 -141.774780 -96.956963 -0.173800 0.072471 -0.982111 
-852.216614 -143.390137 -91.221924 -0.230166 0.063874 -0.971053 
-852.216614 -158.830978 -90.671646 -0.226516 -0.131418 -0.965101 
-823.662292 -158.360825 -96.514069 -0.170510 -0.123683 -0.977563 
-876.271057 -117.958817 -77.198486 -0.307738 0.459889 -0.832946 
-896.339417 -121.782257 -70.814484 -0.392320 0.445868 -0.804541 
-896.766663 -133.636368 -75.434792 -0.390185 0.246047 -0.887252 
-876.470459 -130.984543 -82.421295 -0.303864 0.256020 -0.917671 
-711.396790 -84.157906 -86.730370 -0.089652 0.666287 -0.740286 
-665.888977 -80.536827 -88.348373 -0.070468 0.662865 -0.745415 
-665.888977 -67.213074 -73.188400 -0.080881 0.820989 -0.565186 
-711.396790 -71.273773 -71.874779 -0.099750 0.823233 -0.558872 
-711.396790 -136.499695 -108.704330 -0.062382 0.088652 -0.994107 
-711.396790 -155.825882 -108.558716 -0.057530 -0.103318 -0.992983 
-665.888977 -154.650177 -110.813301 -0.037481 -0.099127 -0.994369 
-665.888977 -134.664551 -110.901314 -0.042604 0.090547 -0.994981 
-753.242493 -228.724792 -51.408360 -0.072520 -0.921602 -0.381302 
-790.742493 -226.026245 -49.239681 -0.106488 -0.919937 -0.377327 
-790.742493 -231.903030 -30.371765 -0.103299 -0.970330 -0.218605 
-753.242493 -234.906769 -31.719595 -0.070714 -0.972748 -0.220817 
-823.662292 -230.895157 -9.703416 -0.140383 -0.987569 -0.070711 
-852.216614 -226.236465 -9.069084 -0.186882 -0.979910 -0.069649 
-852.216614 -226.236465 9.069084 -0.186882 -0.979910 0.069649 
-823.662292 -230.895157 9.703416 -0.140383 -0.987569 0.070711 
-876.271057 -213.980240 -40.279652 -0.251708 -0.898520 -0.359590 
-896.339417 -208.930893 -36.855461 -0.322371 -0.879700 -0.349578 
-896.766663 -213.056351 -22.721880 -0.316890 -0.926471 -0.203058 
-876.470459 -218.630478 -24.825005 -0.246203 -0.946521 -0.208523 
-823.626709 -214.326691 -62.516624 -0.153211 -0.824828 -0.544229 
-823.626709 -203.274979 -75.743698 -0.160211 -0.677923 -0.717463 
-852.038574 -200.617905 -70.916321 -0.211241 -0.676167 -0.705815 
-852.038574 -210.883575 -58.487720 -0.202188 -0.819885 -0.535639 
-711.396790 -208.167679 -85.965897 -0.051032 -0.670081 -0.740531 
-711.396790 -221.051804 -71.110298 -0.049257 -0.825318 -0.562516 
-665.888977 -222.101639 -72.726349 -0.030563 -0.822676 -0.567689 
-665.888977 -208.777893 -87.886322 -0.031359 -0.665358 -0.745866 
-711.396790 -240.378006 -11.068887 -0.046847 -0.996235 -0.072949 
-711.396790 -240.378006 11.068887 -0.046847 -0.996235 0.072949 
-665.888977 -242.087265 11.325975 -0.030311 -0.996815 0.073767 
-665.888977 -242.087265 -11.325975 -0.030311 -0.996815 -0.073767 
-753.242493 -192.019302 -94.280960 -0.080673 -0.492206 -0.866733 
-753.242493 -175.018875 -101.669624 -0.082650 -0.301371 -0.949918 
-790.742493 -174.971741 -97.700737 -0.121546 -0.308384 -0.943465 
-790.742493 -191.132874 -90.505829 -0.119399 -0.497713 -0.859084 
-876.271057 -186.058823 -74.461983 -0.281146 -0.502413 -0.817642 
-876.470459 -173.049530 -80.623016 -0.288530 -0.323112 -0.901304 
-896.766663 -171.951477 -73.579269 -0.368499 -0.320700 -0.872559 
-896.339417 -183.770370 -67.990860 -0.357504 -0.495050 -0.791907 
-753.242493 -192.019302 94.280960 -0.080673 -0.492206 0.866733 
-790.742493 -191.132874 90.505829 -0.119399 -0.497713 0.859084 
-790.742493 -174.971741 97.700737 -0.121546 -0.308384 0.943465 
-753.242493 -175.018875 101.669624 -0.082650 -0.301371 0.949918 
-876.271057 -186.058823 74.461983 -0.281147 -0.502413 0.817642 
-896.339417 -183.770370 67.990860 -0.357504 -0.495050 0.791907 
-896.766663 -171.951477 73.579269 -0.368499 -0.320700 0.872560 
-876.470459 -173.049530 80.623016 -0.288530 -0.323112 0.901304 
-823.626709 -203.274979 75.743698 -0.160211 -0.677923 0.717463 
-823.626709 -214.326691 62.516624 -0.153211 -0.824828 0.544229 
-852.038574 -210.883575 58.487720 -0.202188 -0.819885 0.535639 
-852.038574 -200.617905 70.916321 -0.211241 -0.676167 0.705815 
-711.396790 -221.051804 71.110298 -0.049257 -0.825318 0.562516 
-711.396790 -208.167679 85.965897 -0.051032 -0.670081 0.740531 
-665.888977 -208.777893 87.886322 -0.031359 -0.665358 0.745866 
-665.888977 -222.101639 72.726349 -0.030563 -0.822676 0.567689 
-753.242493 -228.724792 51.408360 -0.072520 -0.921602 0.381302 
-753.242493 -234.906769 31.719595 -0.070714 -0.972748 0.220817 
-790.742493 -231.903030 30.371765 -0.103299 -0.970330 0.218605 
-790.742493 -226.026245 49.239681 -0.106488 -0.919937 0.377327 
-876.271057 -213.980240 40.279652 -0.251708 -0.898520 0.359590 
-876.470459 -218.630478 24.825005 -0.246203 -0.946521 0.208523 
-896.766663 -213.056351 22.721880 -0.316890 -0.926471 0.203058 
-896.339417 -208.930893 36.855461 -0.322371 -0.879700 0.349578 
223.775757 -118.055710 -994.765869 0.321750 0.945628 -0.047598 
213.069855 -118.422607 -1029.372803 0.092966 0.990239 -0.103844 
218.806931 -122.647003 -1058.083740 0.084124 0.981569 -0.171595 
230.675949 -122.392998 -1019.717041 0.525260 0.849573 -0.048246 
202.387512 -131.679108 -1079.486450 0.120339 -0.813557 -0.568896 
202.387512 -126.961823 -1079.486450 0.120339 0.813557 -0.568897 
182.901245 -126.872459 -1082.078369 0.027505 0.768870 -0.638813 
182.901245 -131.768463 -1082.078369 0.027505 -0.768871 -0.638812 
162.356369 -117.092636 -1045.137085 -0.002585 0.986497 -0.163758 
145.439438 -117.092636 -1040.779175 -0.090966 0.980457 -0.174438 
145.535431 -121.874641 -1062.374023 -0.164894 0.942593 -0.290395 
163.265121 -121.874641 -1068.440918 -0.040145 0.961197 -0.272927 
192.987579 -113.687309 -1001.431335 0.106169 0.990197 -0.090768 
191.792740 -110.050201 -958.858643 0.127108 0.989067 -0.074768 
177.049316 -109.005943 -965.335388 0.080234 0.993515 -0.080557 
177.699203 -112.978714 -1008.439758 0.070823 0.992048 -0.104043 
218.964188 -112.418861 -917.447998 0.269546 0.961326 -0.056547 
223.362534 -110.418335 -860.764160 0.323722 0.944475 -0.056319 
210.691040 -106.594170 -856.026489 0.224173 0.972776 -0.058770 
207.032944 -109.127579 -909.482178 0.196848 0.978433 -0.062601 
239.342697 -126.679375 -960.302734 0.918466 0.390883 -0.060252 
239.342697 -131.961548 -960.302734 0.918466 -0.390884 -0.060252 
243.964554 -132.277557 -886.062256 0.943048 -0.327493 -0.058392 
243.964554 -126.363358 -886.062256 0.943048 0.327493 -0.058392 
161.189804 -104.681694 -918.583313 0.028579 0.997290 -0.067800 
161.606003 -101.092278 -861.209595 0.029453 0.997812 -0.059190 
143.677979 -101.092278 -861.124146 -0.030316 0.997771 -0.059451 
144.295120 -104.681694 -918.156067 -0.032628 0.997103 -0.068705 
191.792740 -148.590729 -958.858643 0.127107 -0.989067 -0.074768 
192.987579 -144.953613 -1001.431335 0.106170 -0.990197 -0.090768 
177.699203 -145.662216 -1008.439758 0.070823 -0.992048 -0.104043 
177.049316 -149.634979 -965.335388 0.080234 -0.993515 -0.080557 
145.439438 -141.548279 -1040.779175 -0.090966 -0.980457 -0.174437 
162.356369 -141.548279 -1045.136963 -0.002584 -0.986497 -0.163757 
163.265121 -136.766281 -1068.440918 -0.040146 -0.961197 -0.272927 
145.535431 -136.766281 -1062.374023 -0.164893 -0.942593 -0.290395 
213.069855 -140.218323 -1029.372803 0.092967 -0.990239 -0.103845 
223.775757 -140.585220 -994.765869 0.321750 -0.945628 -0.047598 
230.675949 -136.247925 -1019.717041 0.525260 -0.849573 -0.048246 
218.806931 -135.993927 -1058.083740 0.084124 -0.981569 -0.171595 
207.032944 -149.513351 -909.482178 0.196848 -0.978434 -0.062601 
210.691040 -152.046753 -856.026489 0.224173 -0.972776 -0.058770 
223.362534 -148.222595 -860.764160 0.323722 -0.944475 -0.056319 
218.964188 -146.222061 -917.447998 0.269546 -0.961326 -0.056547 
161.189804 -153.959229 -918.583313 0.028579 -0.997290 -0.067800 
144.295120 -153.959229 -918.156067 -0.032628 -0.997103 -0.068705 
143.677979 -157.548645 -861.124146 -0.030317 -0.997771 -0.059450 
161.606003 -157.548645 -861.209595 0.029454 -0.997812 -0.059190 
90.977646 -141.162384 -951.188354 -0.481652 -0.866269 -0.132628 
101.683548 -140.795502 -985.795288 -0.397845 -0.903769 -0.157866 
99.174850 -136.475906 -999.416565 -0.581278 -0.781892 -0.225303 
87.305840 -136.729919 -961.049866 -0.679056 -0.712371 -0.177231 
112.094795 -126.896362 -1037.414551 -0.754954 0.479464 -0.447391 
112.094795 -131.744568 -1037.414551 -0.754954 -0.479465 -0.447391 
128.171906 -131.781555 -1059.308594 -0.599535 -0.565755 -0.566109 
128.171906 -126.859367 -1059.308594 -0.599534 0.565755 -0.566109 
115.651543 -145.035431 -985.955505 -0.210543 -0.969991 -0.121614 
115.102455 -148.607086 -951.263123 -0.172627 -0.980851 -0.090173 
129.181671 -149.638260 -961.423706 -0.103659 -0.990675 -0.088419 
129.640503 -145.678574 -1000.217651 -0.131312 -0.983837 -0.121743 
89.640678 -146.303879 -901.811951 -0.365841 -0.926660 -0.086387 
83.805923 -148.238953 -851.740967 -0.381876 -0.921327 -0.072991 
95.460030 -152.050018 -851.740967 -0.252269 -0.965421 -0.065753 
99.846275 -149.529709 -901.811951 -0.247575 -0.965855 -0.076361 
75.043701 -132.027008 -917.782227 -0.943246 -0.286385 -0.168140 
75.043701 -126.613922 -917.782227 -0.943246 0.286385 -0.168140 
66.629066 -126.350273 -861.049377 -0.958049 0.258895 -0.122947 
66.629066 -132.290649 -861.049377 -0.958049 -0.258894 -0.122947 
115.102455 -110.033836 -951.263123 -0.172627 0.980851 -0.090173 
115.651543 -113.605484 -985.955505 -0.210542 0.969991 -0.121614 
129.640503 -112.962349 -1000.217651 -0.131312 0.983837 -0.121743 
129.181671 -109.002670 -961.423706 -0.103659 0.990675 -0.088419 
101.683548 -117.845428 -985.795288 -0.397845 0.903769 -0.157867 
90.977646 -117.478531 -951.188354 -0.481652 0.866268 -0.132629 
87.305840 -121.911011 -961.049866 -0.679055 0.712372 -0.177231 
99.174850 -122.165016 -999.416565 -0.581278 0.781892 -0.225303 
99.846275 -109.111214 -901.811951 -0.247575 0.965855 -0.076360 
95.460030 -106.590897 -851.740967 -0.252269 0.965421 -0.065753 
83.805923 -110.401970 -851.740967 -0.381876 0.921327 -0.072991 
89.640678 -112.337044 -901.811951 -0.365840 0.926660 -0.086386 
191.792740 -110.050201 958.858643 0.127108 0.989067 0.074768 
192.987579 -113.687309 1001.431335 0.106169 0.990197 0.090768 
177.699203 -112.978714 1008.439758 0.070823 0.992048 0.104043 
177.049316 -109.005943 965.335388 0.080234 0.993515 0.080557 
145.439438 -117.092636 1040.779175 -0.090966 0.980457 0.174438 
162.356369 -117.092636 1045.136963 -0.002584 0.986497 0.163757 
163.265121 -121.874641 1068.440918 -0.040145 0.961197 0.272927 
145.535431 -121.874641 1062.374023 -0.164894 0.942593 0.290395 
202.387512 -126.961823 1079.486450 0.120339 0.813557 0.568897 
202.387512 -131.679108 1079.486450 0.120339 -0.813557 0.568896 
182.901245 -131.768463 1082.078369 0.027505 -0.768871 0.638812 
182.901245 -126.872459 1082.078369 0.027505 0.768870 0.638813 
213.069855 -118.422607 1029.372803 0.092966 0.990239 0.103844 
223.775757 -118.055710 994.765869 0.321750 0.945628 0.047598 
230.675949 -122.392998 1019.717041 0.525260 0.849573 0.048246 
218.806931 -122.647003 1058.083740 0.084124 0.981569 0.171595 
207.032944 -109.127579 909.482178 0.196848 0.978433 0.062601 
210.691040 -106.594170 856.026489 0.224173 0.972776 0.058770 
223.362534 -110.418335 860.764160 0.323722 0.944475 0.056319 
218.964188 -112.418861 917.447998 0.269546 0.961326 0.056547 
161.189804 -104.681694 918.583313 0.028579 0.997290 0.067800 
144.295120 -104.681694 918.156067 -0.032628 0.997103 0.068705 
143.677979 -101.092278 861.124146 -0.030316 0.997771 0.059451 
161.606003 -101.092278 861.209595 0.029453 0.997812 0.059190 
239.342697 -126.679375 960.302734 0.918466 0.390883 0.060252 
243.964554 -126.363358 886.062256 0.943048 0.327493 0.058392 
243.964554 -132.277557 886.062256 0.943048 -0.327493 0.058392 
239.342697 -131.961548 960.302734 0.918466 -0.390884 0.060252 
90.977646 -117.478531 951.188354 -0.481652 0.866268 0.132629 
101.683548 -117.845428 985.795288 -0.397845 0.903769 0.157867 
99.174850 -122.165016 999.416565 -0.581278 0.781892 0.225303 
87.305840 -121.911011 961.049866 -0.679055 0.712372 0.177231 
112.094795 -131.744568 1037.414551 -0.754954 -0.479465 0.447391 
112.094795 -126.896362 1037.414551 -0.754954 0.479464 0.447391 
128.171906 -126.859367 1059.308594 -0.599534 0.565755 0.566109 
128.171906 -131.781555 1059.308594 -0.599535 -0.565755 0.566109 
115.651543 -113.605484 985.955505 -0.210542 0.969991 0.121614 
115.102455 -110.033836 951.263123 -0.172627 0.980851 0.090173 
129.181671 -109.002670 961.423706 -0.103659 0.990675 0.088419 
129.640503 -112.962349 1000.217651 -0.131312 0.983837 0.121743 
89.640678 -112.337044 901.811951 -0.365840 0.926660 0.086386 
83.805923 -110.401970 851.740967 -0.381876 0.921327 0.072991 
95.460030 -106.590897 851.740967 -0.252269 0.965421 0.065753 
99.846275 -109.111214 901.811951 -0.247575 0.965855 0.076360 
75.043701 -126.613922 917.782227 -0.943246 0.286385 0.168140 
75.043701 -132.027008 917.782227 -0.943246 -0.286385 0.168140 
66.629066 -132.290649 861.049377 -0.958049 -0.258894 0.122947 
66.629066 -126.350273 861.049377 -0.958049 0.258895 0.122947 
115.102455 -148.607086 951.263123 -0.172627 -0.980851 0.090173 
115.651543 -145.035431 985.955505 -0.210543 -0.969991 0.121614 
129.640503 -145.678574 1000.217651 -0.131312 -0.983837 0.121743 
129.181671 -149.638260 961.423706 -0.103659 -0.990675 0.088419 
162.356369 -141.548279 1045.137085 -0.002584 -0.986497 0.163758 
145.439438 -141.548279 1040.779053 -0.090966 -0.980458 0.174437 
145.535431 -136.766281 1062.374023 -0.164893 -0.942593 0.290394 
163.265121 -136.766281 1068.440918 -0.040146 -0.961197 0.272927 
101.683548 -140.795502 985.795288 -0.397845 -0.903769 0.157866 
90.977646 -141.162384 951.188354 -0.481652 -0.866269 0.132628 
87.305840 -136.729919 961.049866 -0.679056 -0.712371 0.177231 
99.174850 -136.475906 999.416565 -0.581278 -0.781892 0.225303 
99.846275 -149.529709 901.811951 -0.247575 -0.965855 0.076361 
95.460030 -152.050018 851.740967 -0.252269 -0.965421 0.065753 
83.805923 -148.238953 851.740967 -0.381876 -0.921327 0.072991 
89.640678 -146.303879 901.811951 -0.365841 -0.926660 0.086387 
144.295120 -153.959229 918.156067 -0.032628 -0.997103 0.068705 
161.189804 -153.959229 918.583313 0.028579 -0.997290 0.067800 
161.606003 -157.548645 861.209595 0.029454 -0.997812 0.059190 
143.677979 -157.548645 861.124146 -0.030317 -0.997771 0.059450 
223.775757 -140.585220 994.765869 0.321750 -0.945628 0.047598 
213.069855 -140.218323 1029.372803 0.092967 -0.990239 0.103845 
218.806931 -135.993927 1058.083740 0.084124 -0.981569 0.171595 
230.675949 -136.247925 1019.717041 0.525260 -0.849573 0.048246 
192.987579 -144.953613 1001.431335 0.106170 -0.990197 0.090768 
191.792740 -148.590729 958.858643 0.127107 -0.989067 0.074768 
177.049316 -149.634979 965.335388 0.080234 -0.993515 0.080557 
177.699203 -145.662216 1008.439758 0.070823 -0.992048 0.104043 
218.964188 -146.222061 917.447998 0.269546 -0.961326 0.056547 
223.362534 -148.222595 860.764160 0.323722 -0.944475 0.056319 
210.691040 -152.046753 856.026489 0.224173 -0.972776 0.058770 
207.032944 -149.513351 909.482178 0.196848 -0.978434 0.062601 
805.623657 181.566956 28.724426 -0.158993 0.398812 0.903145 
808.848083 196.173584 22.396524 -0.190162 0.458829 0.867937 
825.823547 201.879089 22.271299 -0.102070 0.436800 0.893749 
822.222107 185.484161 29.150150 -0.075089 0.377996 0.922757 
867.053955 220.318985 14.997978 0.012462 0.456887 0.889437 
847.193726 218.750290 15.362336 -0.062526 0.504157 0.861346 
849.165283 227.929993 9.093246 -0.115084 0.677328 0.726624 
870.291687 230.273178 8.876873 -0.022591 0.629945 0.776311 
808.588806 217.910477 3.272217 -0.460959 0.846953 0.264929 
808.588806 217.910477 -3.272217 -0.460959 0.846953 -0.264929 
828.822998 226.891663 -3.107849 -0.313483 0.901120 -0.299518 
828.822998 226.891663 3.107849 -0.313483 0.901120 0.299518 
792.937805 196.404633 16.929596 -0.380104 0.552684 0.741661 
778.365051 182.120346 18.643040 -0.496682 0.515480 0.698275 
774.876709 186.337982 11.661524 -0.634621 0.586411 0.503367 
791.032715 202.174149 10.475293 -0.502297 0.659197 0.559605 
784.615906 161.119980 32.897060 -0.267876 0.404640 0.874362 
775.114563 140.033752 39.732670 -0.288492 0.414544 0.863091 
762.001648 140.470825 33.747486 -0.447744 0.442582 0.776947 
773.155823 161.417984 28.224092 -0.409366 0.436467 0.801197 
835.473511 166.719070 36.664413 0.011429 0.337554 0.941237 
854.291992 166.377945 35.805355 0.084477 0.312821 0.946048 
849.730774 142.015396 44.387856 0.099065 0.322196 0.941475 
829.812500 142.583252 45.463352 0.019826 0.345456 0.938225 
757.811890 168.595062 4.579597 -0.813507 0.555158 0.173223 
743.335266 145.377426 5.427043 -0.847703 0.508050 0.152591 
743.335266 145.377426 -5.427043 -0.847703 0.508050 -0.152591 
757.811890 168.595062 -4.579597 -0.813507 0.555158 -0.173223 
933.279724 197.812607 14.760463 0.347288 0.077634 0.934539 
924.615356 212.936340 13.702863 0.086435 0.294952 0.951595 
934.555115 225.335602 8.230795 0.074166 0.439512 0.895169 
944.160767 208.568787 8.962979 0.560253 0.004883 0.828307 
917.407349 234.683807 -2.807277 0.070718 0.857944 -0.508853 
917.407349 234.683807 2.807277 0.070718 0.857944 0.508853 
894.638611 235.928452 2.871361 0.020727 0.894503 0.446580 
894.638611 235.928452 -2.871361 0.020727 0.894503 -0.446580 
898.117920 201.070984 19.925362 0.114325 0.275229 0.954557 
892.378174 182.756851 25.698000 0.159685 0.252174 0.954416 
876.294128 185.872314 27.186090 0.118815 0.291362 0.949206 
881.198730 204.336365 20.741169 0.087945 0.324269 0.941868 
919.187805 164.348633 23.571953 0.311470 0.152625 0.937919 
918.388733 139.698044 28.072716 0.408309 0.159460 0.898808 
903.725830 138.008560 34.078018 0.309680 0.223936 0.924095 
904.753235 161.159790 28.345503 0.245467 0.215245 0.945207 
947.364868 182.614883 3.619956 0.937096 -0.081048 0.339533 
947.364868 182.614883 -3.619956 0.937096 -0.081048 -0.339533 
944.304565 150.347092 -4.331431 0.961648 -0.086144 -0.260407 
944.304565 150.347092 4.331431 0.961648 -0.086144 0.260407 
892.378174 182.756851 -25.698000 0.159685 0.252174 -0.954416 
898.117920 201.070984 -19.925362 0.114325 0.275229 -0.954557 
881.198730 204.336365 -20.741169 0.087945 0.324269 -0.941868 
876.294128 185.872314 -27.186090 0.118815 0.291362 -0.949206 
847.193726 218.750290 -15.362336 -0.062526 0.504157 -0.861346 
867.053955 220.318985 -14.997978 0.012462 0.456887 -0.889437 
870.291687 230.273178 -8.876873 -0.022591 0.629945 -0.776311 
849.165283 227.929993 -9.093246 -0.115084 0.677328 -0.726624 
924.615356 212.936340 -13.702863 0.086435 0.294952 -0.951595 
933.279724 197.812607 -14.760463 0.347288 0.077634 -0.934539 
944.160767 208.568787 -8.962979 0.560253 0.004883 -0.828307 
934.555115 225.335602 -8.230795 0.074166 0.439512 -0.895169 
904.753235 161.159790 -28.345503 0.245467 0.215245 -0.945207 
903.725830 138.008560 -34.078018 0.309680 0.223936 -0.924095 
918.388733 139.698044 -28.072716 0.408309 0.159460 -0.898808 
919.187805 164.348633 -23.571953 0.311470 0.152625 -0.937919 
854.291992 166.377945 -35.805355 0.084477 0.312821 -0.946048 
835.473511 166.719070 -36.664413 0.011430 0.337554 -0.941237 
829.812500 142.583252 -45.463352 0.019826 0.345456 -0.938225 
849.730774 142.015396 -44.387856 0.099065 0.322196 -0.941475 
778.365051 182.120346 -18.643040 -0.496682 0.515480 -0.698275 
792.937805 196.404633 -16.929596 -0.380104 0.552684 -0.741661 
791.032715 202.174149 -10.475293 -0.502297 0.659197 -0.559605 
774.876709 186.337982 -11.661524 -0.634621 0.586411 -0.503367 
808.848083 196.173584 -22.396524 -0.190162 0.458829 -0.867937 
805.623657 181.566956 -28.724426 -0.158993 0.398812 -0.903144 
822.222107 185.484161 -29.150150 -0.075089 0.377996 -0.922757 
825.823547 201.879089 -22.271299 -0.102070 0.436800 -0.893749 
773.155823 161.417984 -28.224092 -0.409366 0.436467 -0.801197 
762.001648 140.470825 -33.747486 -0.447744 0.442582 -0.776947 
775.114563 140.033752 -39.732670 -0.288492 0.414544 -0.863091 
784.615906 161.119980 -32.897060 -0.267876 0.404640 -0.874362 
757.124329 -100.263397 -310.414337 -0.146312 0.919337 -0.365256 
757.154846 -105.999023 -323.503204 -0.172634 0.881387 -0.439721 
774.349243 -105.706627 -328.155548 -0.098433 0.893829 -0.437472 
774.196655 -99.380096 -313.369781 -0.078376 0.929489 -0.360427 
815.544861 -112.176559 -343.952515 0.008329 0.862134 -0.506612 
793.968933 -112.127869 -342.956116 -0.057977 0.841623 -0.536944 
794.123230 -118.552078 -351.316559 -0.095126 0.701103 -0.706686 
817.069092 -118.588875 -353.091492 -0.016597 0.739987 -0.672416 
751.613525 -124.233109 -343.090546 -0.413157 0.292475 -0.862415 
751.613525 -130.135315 -343.090546 -0.419871 -0.312513 -0.852082 
771.836487 -130.340210 -350.774170 -0.265564 -0.330793 -0.905567 
771.836487 -124.561142 -350.774170 -0.263586 0.306077 -0.914789 
739.692444 -111.398865 -324.169281 -0.336171 0.788026 -0.515756 
727.332825 -109.904503 -311.809662 -0.441463 0.775976 -0.450524 
722.468079 -116.081825 -315.690002 -0.593609 0.605361 -0.530251 
736.170471 -117.373291 -329.392395 -0.453598 0.627022 -0.633319 
739.329346 -97.140594 -292.686920 -0.232797 0.910705 -0.341207 
734.355103 -91.482880 -273.866058 -0.245338 0.908666 -0.337838 
720.219482 -96.766449 -274.850159 -0.383590 0.855893 -0.346852 
726.883118 -101.431564 -293.396301 -0.354439 0.863997 -0.357605 
792.702881 -92.200249 -295.651917 -0.012372 0.946410 -0.322730 
812.972046 -92.173775 -294.528961 0.043628 0.947638 -0.316353 
813.360046 -84.733681 -272.077148 0.050290 0.946337 -0.319246 
792.065186 -84.754845 -273.594666 -0.007874 0.946138 -0.323667 
708.473572 -121.420189 -300.393860 -0.844893 0.243990 -0.476052 
698.958923 -119.786545 -280.113007 -0.890123 0.226854 -0.395246 
698.921753 -128.027481 -280.133301 -0.898454 -0.228488 -0.374931 
708.466125 -128.678558 -300.397919 -0.853770 -0.253175 -0.454950 
893.464294 -110.170547 -321.787842 0.237068 0.944122 -0.228981 
881.104675 -112.662819 -336.190674 0.075295 0.928043 -0.364783 
890.015808 -118.585457 -347.779816 0.061317 0.870441 -0.488440 
903.718201 -115.826042 -331.812225 0.396608 0.894192 -0.207661 
868.966309 -129.016098 -356.674896 0.073651 -0.580566 -0.810875 
868.966309 -124.219337 -356.674896 0.057051 0.501169 -0.863467 
843.131531 -124.463654 -358.026062 0.020560 0.430035 -0.902578 
843.131531 -129.641541 -358.026062 0.033897 -0.490010 -0.871058 
853.720398 -106.155167 -325.402802 0.091470 0.935503 -0.341273 
850.875488 -100.066093 -308.392456 0.113175 0.944937 -0.307059 
832.701111 -99.320923 -311.781738 0.080043 0.941733 -0.326698 
834.393188 -105.781723 -328.812683 0.067200 0.923787 -0.376964 
883.750977 -99.888191 -290.330353 0.203185 0.943771 -0.260791 
887.317200 -94.074013 -266.752594 0.252186 0.929106 -0.270490 
871.806641 -90.147171 -265.763306 0.192894 0.936595 -0.292544 
868.523254 -96.246300 -287.737640 0.163221 0.944628 -0.284671 
911.615234 -115.592400 -306.972839 0.856676 0.495441 -0.143685 
911.600464 -120.436829 -306.982941 0.869258 -0.493757 0.024386 
913.479858 -115.422623 -275.998871 0.905808 -0.423345 0.017078 
913.553711 -110.049324 -275.948456 0.903248 0.409797 -0.127313 
850.875488 -139.365082 -308.392456 0.179643 -0.983088 -0.035591 
853.720398 -138.093460 -325.402802 0.138249 -0.988069 -0.067867 
834.393188 -140.373734 -328.812683 0.124442 -0.983787 -0.129145 
832.701111 -142.307388 -311.781738 0.156392 -0.984783 -0.075792 
793.968933 -139.919510 -342.956116 -0.013199 -0.926777 -0.375379 
815.544861 -139.003113 -343.952515 0.054200 -0.948573 -0.311885 
817.069092 -134.912979 -353.091492 0.011927 -0.839687 -0.542939 
794.123230 -135.449295 -351.316559 -0.071817 -0.789416 -0.609643 
881.104675 -134.059860 -336.190674 0.101518 -0.991493 -0.081466 
893.464294 -131.585022 -321.787842 0.278714 -0.956887 0.081772 
903.718201 -128.853256 -331.812225 0.430888 -0.897784 0.091214 
890.015808 -131.600601 -347.779816 0.081719 -0.967370 -0.239828 
868.432007 -135.885330 -287.762787 0.233396 -0.972313 0.011565 
871.350403 -134.729248 -265.889160 0.274878 -0.961185 0.023790 
886.897400 -129.958237 -266.952515 0.323817 -0.944839 0.049203 
883.667053 -132.120865 -290.370331 0.264557 -0.963193 0.047621 
812.899536 -146.596375 -294.473633 0.141664 -0.987726 -0.065789 
792.637695 -148.896454 -295.590576 0.088747 -0.992036 -0.089376 
791.739380 -150.564926 -273.287933 0.109453 -0.992422 -0.055846 
812.997559 -147.704193 -271.800568 0.160664 -0.986372 -0.035475 
727.332825 -140.501389 -311.809662 -0.414129 -0.841204 -0.347667 
739.692444 -140.241165 -324.169281 -0.308647 -0.858022 -0.410531 
736.170471 -135.407242 -329.392395 -0.451963 -0.684206 -0.572356 
722.468079 -135.330505 -315.690002 -0.593560 -0.655252 -0.467260 
757.154846 -144.325180 -323.503204 -0.118353 -0.948908 -0.292518 
757.124329 -147.547043 -310.414337 -0.072116 -0.977935 -0.196067 
774.196655 -147.562515 -313.369781 0.002170 -0.985068 -0.172154 
774.349243 -144.320023 -328.155548 -0.037656 -0.962098 -0.270090 
726.837708 -145.819336 -293.404633 -0.295587 -0.930534 -0.216181 
719.992493 -147.602158 -274.891846 -0.307869 -0.931680 -0.192845 
734.091614 -150.988388 -273.833679 -0.144913 -0.978773 -0.144927 
739.276672 -148.794373 -292.680450 -0.153312 -0.973493 -0.169727 
757.124329 -147.547043 310.414337 -0.072116 -0.977935 0.196067 
757.154846 -144.325180 323.503204 -0.118353 -0.948908 0.292518 
774.349243 -144.320023 328.155548 -0.037656 -0.962098 0.270090 
774.196655 -147.562515 313.369781 0.002170 -0.985068 0.172154 
815.544861 -139.003113 343.952515 0.054200 -0.948573 0.311885 
793.968933 -139.919510 342.956116 -0.013199 -0.926777 0.375379 
794.123230 -135.449295 351.316559 -0.071817 -0.789416 0.609643 
817.069092 -134.912979 353.091492 0.011927 -0.839687 0.542939 
751.613525 -130.135315 343.090546 -0.419871 -0.312513 0.852082 
751.613525 -124.233109 343.090546 -0.413157 0.292475 0.862415 
771.836487 -124.561142 350.774170 -0.263586 0.306077 0.914789 
771.836487 -130.340210 350.774170 -0.265564 -0.330793 0.905567 
739.692444 -140.241165 324.169281 -0.308647 -0.858022 0.410531 
727.332825 -140.501389 311.809662 -0.414129 -0.841204 0.347667 
722.468079 -135.330505 315.690002 -0.593560 -0.655252 0.467260 
736.170471 -135.407242 329.392395 -0.451963 -0.684206 0.572356 
739.276672 -148.794373 292.680450 -0.153312 -0.973493 0.169727 
734.091614 -150.988388 273.833679 -0.144913 -0.978773 0.144927 
719.992493 -147.602158 274.891846 -0.307869 -0.931680 0.192845 
726.837708 -145.819336 293.404633 -0.295587 -0.930534 0.216181 
792.637695 -148.896454 295.590576 0.088747 -0.992036 0.089376 
812.899536 -146.596375 294.473633 0.141664 -0.987726 0.065789 
812.997559 -147.704193 271.800568 0.160664 -0.986372 0.035475 
791.739380 -150.564926 273.287933 0.109453 -0.992422 0.055846 
708.466125 -128.678558 300.397919 -0.853770 -0.253175 0.454950 
698.921753 -128.027481 280.133301 -0.898454 -0.228488 0.374931 
698.958923 -119.786545 280.113007 -0.890123 0.226854 0.395246 
708.473572 -121.420189 300.393860 -0.844893 0.243990 0.476052 
893.464294 -131.585022 321.787842 0.278714 -0.956887 -0.081772 
881.104675 -134.059860 336.190674 0.101518 -0.991493 0.081466 
890.015808 -131.600601 347.779816 0.081719 -0.967370 0.239828 
903.718201 -128.853256 331.812225 0.430888 -0.897784 -0.091214 
868.966309 -124.219337 356.674896 0.057051 0.501169 0.863467 
868.966309 -129.016098 356.674896 0.073651 -0.580566 0.810875 
843.131531 -129.641541 358.026062 0.033897 -0.490010 0.871058 
843.131531 -124.463654 358.026062 0.020560 0.430035 0.902578 
853.720398 -138.093460 325.402802 0.138249 -0.988069 0.067867 
850.875488 -139.365082 308.392456 0.179643 -0.983088 0.035591 
832.701111 -142.307388 311.781738 0.156392 -0.984783 0.075792 
834.393188 -140.373734 328.812683 0.124442 -0.983787 0.129145 
883.667053 -132.120865 290.370331 0.264557 -0.963193 -0.047621 
886.897400 -129.958237 266.952515 0.323818 -0.944839 -0.049203 
871.350403 -134.729248 265.889160 0.274878 -0.961185 -0.023790 
868.432007 -135.885330 287.762787 0.233396 -0.972313 -0.011565 
911.600464 -120.436829 306.982941 0.869258 -0.493757 -0.024386 
911.615234 -115.592400 306.972839 0.856676 0.495441 0.143685 
913.553711 -110.049324 275.948456 0.903248 0.409797 0.127313 
913.479858 -115.422623 275.998871 0.905808 -0.423345 -0.017078 
850.875488 -100.066093 308.392456 0.113175 0.944937 0.307059 
853.720398 -106.155167 325.402802 0.091470 0.935503 0.341273 
834.393188 -105.781723 328.812683 0.067200 0.923787 0.376964 
832.701111 -99.320923 311.781738 0.080043 0.941733 0.326698 
793.968933 -112.127869 342.956116 -0.057977 0.841623 0.536944 
815.544861 -112.176559 343.952515 0.008329 0.862134 0.506612 
817.069092 -118.588875 353.091492 -0.016597 0.739987 0.672416 
794.123230 -118.552078 351.316559 -0.095126 0.701103 0.706686 
881.104675 -112.662819 336.190674 0.075295 0.928043 0.364783 
893.464294 -110.170547 321.787842 0.237068 0.944122 0.228981 
903.718201 -115.826042 331.812225 0.396608 0.894192 0.207661 
890.015808 -118.585457 347.779816 0.061317 0.870441 0.488440 
868.523254 -96.246300 287.737640 0.163221 0.944628 0.284671 
871.806641 -90.147171 265.763306 0.192894 0.936595 0.292544 
887.317200 -94.074013 266.752594 0.252186 0.929106 0.270490 
883.750977 -99.888191 290.330353 0.203185 0.943771 0.260791 
812.972046 -92.173775 294.528961 0.043628 0.947638 0.316353 
792.702881 -92.200249 295.651917 -0.012372 0.946410 0.322730 
792.065186 -84.754845 273.594666 -0.007874 0.946138 0.323667 
813.360046 -84.733681 272.077148 0.050290 0.946337 0.319246 
727.332825 -109.904503 311.809662 -0.441463 0.775976 0.450524 
739.692444 -111.398865 324.169281 -0.336171 0.788026 0.515756 
736.170471 -117.373291 329.392395 -0.453598 0.627022 0.633319 
722.468079 -116.081825 315.690002 -0.593609 0.605361 0.530251 
757.154846 -105.999023 323.503204 -0.172634 0.881387 0.439721 
757.124329 -100.263397 310.414337 -0.146312 0.919337 0.365256 
774.196655 -99.380096 313.369781 -0.078376 0.929489 0.360427 
774.349243 -105.706627 328.155548 -0.098433 0.893829 0.437472 
726.883118 -101.431564 293.396301 -0.354439 0.863997 0.357605 
720.219482 -96.766449 274.850159 -0.383590 0.855893 0.346852 
734.355103 -91.482880 273.866058 -0.245338 0.908666 0.337838 
739.329346 -97.140594 292.686920 -0.232797 0.910705 0.341207 
-935.137756 -131.357727 -47.982273 -0.697755 0.397645 -0.595833 
-942.553528 -132.669403 -38.838917 -0.770047 0.417556 -0.482363 
-945.472412 -141.091324 -39.996201 -0.803637 0.261594 -0.534543 
-937.250977 -140.056000 -50.046299 -0.714898 0.239585 -0.656902 
-953.518677 -159.637299 -29.211727 -0.895302 -0.119740 -0.429064 
-953.518677 -150.523987 -29.442862 -0.900505 0.097401 -0.423796 
-957.825745 -150.679367 -17.865812 -0.958734 0.109026 -0.262568 
-957.825745 -159.836929 -17.728554 -0.956529 -0.118170 -0.266625 
-953.518677 -132.235870 -5.948551 -0.859648 0.505110 -0.076612 
-953.518677 -132.235870 5.948551 -0.859648 0.505110 0.076612 
-957.825745 -141.436523 5.958218 -0.940996 0.327767 0.084227 
-957.825745 -141.436523 -5.958218 -0.940996 0.327768 -0.084227 
-942.553528 -124.678017 -28.621906 -0.745369 0.587948 -0.314232 
-935.137756 -117.159782 -29.929081 -0.660341 0.691599 -0.292645 
-937.250977 -115.435280 -18.741896 -0.661275 0.728862 -0.177415 
-945.472412 -123.770302 -17.836929 -0.757199 0.623756 -0.193851 
-924.180420 -120.593834 -51.000511 -0.578471 0.571778 -0.581757 
-911.944275 -116.123787 -57.294441 -0.481011 0.607624 -0.631999 
-911.944275 -108.687363 -47.996716 -0.470864 0.749657 -0.465082 
-924.180420 -114.359940 -43.133812 -0.564646 0.700848 -0.435874 
-927.602661 -148.708191 -60.481144 -0.603566 0.053617 -0.795508 
-927.602661 -159.324463 -59.951134 -0.592693 -0.131990 -0.794540 
-913.938904 -159.327805 -68.684891 -0.478442 -0.137237 -0.867329 
-913.938904 -147.608414 -69.292419 -0.488038 0.048554 -0.871471 
-927.602661 -106.216675 -6.919550 -0.557072 0.828385 -0.058731 
-913.938904 -98.217819 -7.595552 -0.460665 0.885647 -0.058455 
-913.938904 -98.217819 7.595552 -0.460665 0.885647 0.058455 
-927.602661 -106.216675 6.919550 -0.557072 0.828385 0.058731 
-935.137756 -191.486496 -28.025181 -0.616031 -0.720319 -0.318819 
-942.553528 -184.579498 -27.134050 -0.710716 -0.616795 -0.338299 
-945.472412 -185.727798 -16.882225 -0.728998 -0.650996 -0.211578 
-937.250977 -193.385178 -17.499163 -0.621351 -0.758557 -0.196253 
-953.518677 -177.925430 5.717416 -0.847488 -0.524357 0.082543 
-953.518677 -177.925430 -5.717416 -0.847488 -0.524357 -0.082543 
-957.825745 -169.079773 -5.820959 -0.937232 -0.337319 -0.088386 
-957.825745 -169.079773 5.820959 -0.937232 -0.337319 0.088386 
-942.553528 -176.588104 -37.351063 -0.736373 -0.452629 -0.502874 
-935.137756 -177.288559 -46.078377 -0.656607 -0.442992 -0.610430 
-937.250977 -168.764450 -48.803566 -0.686601 -0.294341 -0.664788 
-945.472412 -168.406769 -39.041492 -0.780951 -0.300000 -0.547828 
-924.180420 -193.390640 -40.340889 -0.510482 -0.725244 -0.461984 
-911.944275 -198.084457 -44.805115 -0.414957 -0.767632 -0.488417 
-911.944275 -190.648026 -54.102840 -0.429851 -0.637219 -0.639672 
-924.180420 -187.156754 -48.207588 -0.526276 -0.605976 -0.596513 
-927.602661 -201.815979 -6.389540 -0.507824 -0.858938 -0.065886 
-927.602661 -201.815979 6.389540 -0.507824 -0.858938 0.065886 
-913.938904 -208.718399 6.988023 -0.402501 -0.913076 0.065460 
-913.938904 -208.718399 -6.988023 -0.402502 -0.913076 -0.065460 
-935.137756 -177.288559 46.078377 -0.656607 -0.442992 0.610431 
-942.553528 -176.588104 37.351063 -0.736373 -0.452629 0.502874 
-945.472412 -168.406769 39.041492 -0.780951 -0.300000 0.547828 
-937.250977 -168.764450 48.803566 -0.686600 -0.294341 0.664788 
-953.518677 -150.523987 29.442862 -0.900505 0.097401 0.423796 
-953.518677 -159.637299 29.211727 -0.895302 -0.119740 0.429064 
-957.825745 -159.836929 17.728554 -0.956529 -0.118170 0.266625 
-957.825745 -150.679367 17.865812 -0.958734 0.109026 0.262568 
-942.553528 -184.579498 27.134050 -0.710716 -0.616795 0.338299 
-935.137756 -191.486496 28.025181 -0.616031 -0.720319 0.318819 
-937.250977 -193.385178 17.499163 -0.621351 -0.758557 0.196253 
-945.472412 -185.727798 16.882225 -0.728998 -0.650996 0.211578 
-924.180420 -187.156754 48.207588 -0.526276 -0.605976 0.596513 
-911.944275 -190.648026 54.102840 -0.429851 -0.637219 0.639672 
-911.944275 -198.084457 44.805115 -0.414957 -0.767632 0.488417 
-924.180420 -193.390640 40.340889 -0.510482 -0.725244 0.461984 
-927.602661 -159.324463 59.951134 -0.592693 -0.131990 0.794540 
-927.602661 -148.708191 60.481144 -0.603566 0.053617 0.795508 
-913.938904 -147.608414 69.292419 -0.488038 0.048554 0.871471 
-913.938904 -159.327805 68.684891 -0.478442 -0.137237 0.867329 
-935.137756 -117.159782 29.929081 -0.660341 0.691599 0.292645 
-942.553528 -124.678017 28.621906 -0.745369 0.587948 0.314232 
-945.472412 -123.770302 17.836929 -0.757199 0.623756 0.193852 
-937.250977 -115.435280 18.741896 -0.661275 0.728862 0.177415 
-942.553528 -132.669403 38.838917 -0.770047 0.417556 0.482363 
-935.137756 -131.357727 47.982273 -0.697755 0.397645 0.595833 
-937.250977 -140.056000 50.046299 -0.714898 0.239585 0.656902 
-945.472412 -141.091324 39.996201 -0.803637 0.261594 0.534543 
-924.180420 -114.359940 43.133812 -0.564646 0.700848 0.435874 
-911.944275 -108.687363 47.996716 -0.470864 0.749657 0.465082 
-911.944275 -116.123787 57.294441 -0.481011 0.607624 0.631999 
-924.180420 -120.593834 51.000511 -0.578471 0.571778 0.581757 
134.938171 -10.022471 -16.309570 -0.005553 0.999624 -0.026862 
170.295593 -10.251291 -16.309570 0.018692 0.999473 -0.026529 
170.295593 -10.251291 16.309570 0.018692 0.999473 0.026529 
134.938171 -10.022471 16.309570 -0.005553 0.999624 0.026862 
170.295593 -247.883514 16.309570 0.034283 -0.999070 0.026164 
170.295593 -247.883514 -16.309570 0.034283 -0.999070 -0.026164 
134.938171 -248.608078 -16.309570 0.007362 -0.999613 -0.026830 
134.938171 -248.608078 16.309570 0.007362 -0.999613 0.026830 
140.398697 -53.849136 -306.067749 -0.048587 0.985288 -0.163849 
164.835068 -53.859806 -306.067749 0.049418 0.985280 -0.163653 
165.559845 -46.365143 -263.002319 0.048262 0.982611 -0.179294 
139.673904 -46.342274 -263.002319 -0.046585 0.982632 -0.179625 
271.193878 -121.325340 -308.310791 0.984389 0.126956 -0.121903 
271.193878 -137.016525 -308.310791 0.984487 -0.126927 -0.121137 
277.631592 -137.735519 -267.808838 0.971257 -0.120116 -0.205503 
277.631592 -120.264572 -267.808838 0.970968 0.120189 -0.206824 
164.835068 -204.740692 -306.067749 0.051159 -0.985315 -0.162902 
140.398697 -204.790955 -306.067749 -0.047133 -0.985363 -0.163827 
139.673904 -212.296875 -263.002319 -0.043650 -0.982778 -0.179563 
165.559845 -212.189148 -263.002319 0.051773 -0.982663 -0.178028 
27.602161 -138.265579 -267.808838 -0.971126 -0.119303 -0.206596 
34.039864 -137.263885 -308.310791 -0.984468 -0.126472 -0.121768 
34.039864 -121.511749 -308.310791 -0.984512 0.126459 -0.121424 
27.602161 -120.664032 -267.808838 -0.971255 0.119271 -0.206006 
271.193878 -137.016525 308.310791 0.984487 -0.126927 0.121137 
271.193878 -121.325340 308.310791 0.984389 0.126956 0.121903 
277.631592 -120.264572 267.808838 0.970968 0.120189 0.206824 
277.631592 -137.735519 267.808838 0.971257 -0.120116 0.205503 
164.835068 -53.859806 306.067749 0.049418 0.985280 0.163653 
140.398697 -53.849136 306.067749 -0.048587 0.985288 0.163849 
139.673904 -46.342274 263.002319 -0.046585 0.982632 0.179625 
165.559845 -46.365143 263.002319 0.048262 0.982611 0.179294 
34.039864 -121.511749 308.310791 -0.984512 0.126459 0.121424 
34.039864 -137.263885 308.310791 -0.984468 -0.126472 0.121768 
27.602161 -138.265579 267.808838 -0.971126 -0.119303 0.206596 
27.602161 -120.664032 267.808838 -0.971255 0.119271 0.206006 
139.673904 -212.296875 263.002319 -0.043650 -0.982778 0.179563 
140.398697 -204.790955 306.067749 -0.047133 -0.985363 0.163827 
164.835068 -204.740692 306.067749 0.051159 -0.985315 0.162902 
165.559845 -212.189148 263.002319 0.051773 -0.982663 0.178028 
-202.888000 -144.300446 118.274780 -0.072506 -0.086709 0.993592 
-202.888000 -121.334457 118.274780 -0.075502 0.086729 0.993367 
-156.723938 -120.389000 122.865601 -0.131036 0.088045 0.987460 
-156.723938 -143.709503 122.865601 -0.128269 -0.088023 0.987825 
-200.644958 -21.509115 12.200684 -0.036811 0.996405 0.076308 
-200.644958 -21.509115 -12.200684 -0.036811 0.996405 -0.076308 
-151.917419 -19.756454 -12.751465 -0.036739 0.996750 -0.071686 
-151.917419 -19.756454 12.751465 -0.036739 0.996750 0.071686 
-202.888000 -121.334457 -118.274780 -0.075502 0.086729 -0.993367 
-202.888000 -144.300446 -118.274780 -0.072506 -0.086709 -0.993592 
-156.723938 -143.709503 -122.865601 -0.128269 -0.088023 -0.987825 
-156.723938 -120.389000 -122.865601 -0.131036 0.088045 -0.987460 
-151.917419 -244.342056 -12.751465 -0.007100 -0.997386 -0.071904 
-200.644958 -244.125793 -12.200684 -0.003589 -0.997068 -0.076439 
-200.644958 -244.125793 12.200684 -0.003589 -0.997068 0.076439 
-151.917419 -244.342056 12.751465 -0.007100 -0.997386 0.071904 
498.194794 -131.630737 -125.326019 -0.026366 -0.098376 -0.994800 
